# .PCD v0.7 - Point Cloud Data file format
VERSION 0.7
FIELDS x y z
SIZE 4 4 4
TYPE F F F
COUNT 1 1 1
WIDTH 281
HEIGHT 1
VIEWPOINT 0 0 0 1 0 0 0
POINTS 281
DATA ascii
-0.074745715 0.17610581 0.83700007
-0.065418094 0.1771051 0.83766669
-0.055020675 0.17663163 0.8372581
-0.044980716 0.17693184 0.83716673
-0.034894634 0.17737393 0.8379091
-0.025979154 0.17786159 0.83788878
-0.015166666 0.1778482 0.8380909
-0.0049985466 0.1777105 0.83794731
0.00079904764 0.17898668 0.83900005
-0.073895074 0.18302459 0.83747053
-0.064969569 0.18435353 0.836375
-0.054912291 0.18463452 0.83561879
-0.044776928 0.18449898 0.83605856
-0.034907252 0.18409768 0.83609676
-0.025490321 0.18480346 0.83638889
-0.015141316 0.18490724 0.83685732
-0.0047846027 0.1849999 0.83727771
0.0047931755 0.1853424 0.83883363
0.014909574 0.18555501 0.83789486
0.025566097 0.18614863 0.83886683
0.034567498 0.18694241 0.83900005
0.044452284 0.18727158 0.83899993
0.050340001 0.18697715 0.83900005
0.088694297 0.18777619 0.83900011
0.090292387 0.18777619 0.83900011
-0.053904284 0.1912581 0.83850008
-0.047143813 0.19097239 0.83900005
-0.023971429 0.19097239 0.83900005
-0.019976191 0.19097239 0.83900005
-0.0047942856 0.19097239 0.83900011
0.0055933329 0.19097239 0.83900005
0.014582619 0.19117212 0.83900011
0.025729334 0.19097239 0.83900005
0.034359053 0.19123873 0.83900011
0.048741907 0.19097239 0.83900005
0.087895244 0.19097239 0.83900005
0.090292387 0.19097239 0.83900005
-0.081280962 0.16336668 0.84500003
-0.075108826 0.16612086 0.84572488
-0.065033637 0.16749781 0.84573913
-0.054776806 0.16776817 0.84581828
-0.045010023 0.16767223 0.84591311
-0.035708662 0.16787322 0.84571415
-0.025436919 0.1683144 0.84600008
-0.014451283 0.16913539 0.84661543
-0.0048371432 0.16929857 0.84650004
0.00080619054 0.16929857 0.84650004
-0.075163543 0.17220832 0.84214282
-0.064965852 0.17243752 0.84214276
-0.054356381 0.17204668 0.84179991
-0.044450164 0.17245175 0.84177762
-0.03552781 0.17274927 0.84209996
-0.024585241 0.17335536 0.84242874
-0.014408988 0.17322078 0.84256524
-0.0046406216 0.17330739 0.84265214
0.004870777 0.17480372 0.84463137
0.014368941 0.17623003 0.8457095
0.025251396 0.17701936 0.84616637
0.035207301 0.17692287 0.84655541
0.044802461 0.17789112 0.84721035
0.053769436 0.17809707 0.84770012
0.064609528 0.17848381 0.84800005
0.071878098 0.17848381 0.84800005
-0.036042858 0.18982571 0.84100002
0.0056066662 0.18021429 0.84100002
0.015238202 0.18098636 0.84211117
0.024856469 0.18119918 0.84185708
0.036034036 0.18253809 0.84278959
0.045297511 0.18305552 0.84304154
0.055075139 0.18391447 0.84389466
0.064827271 0.18438724 0.84391475
0.075318955 0.18418102 0.84551096
0.085278146 0.18506067 0.84497285
0.091411822 0.18201259 0.84640008
0.025115956 0.19612834 0.84496427
0.035487704 0.19604032 0.84434795
0.044614434 0.19502871 0.84435993
0.054850079 0.19401544 0.84479308
0.064718693 0.19333327 0.84399998
0.075334892 0.19420272 0.84543735
0.084714606 0.19459954 0.84418511
0.090507619 0.19463143 0.84100002
-0.080472864 0.15769286 0.85350007
-0.07464911 0.15672126 0.8543126
-0.065358989 0.15696344 0.85426664
-0.055588745 0.15752938 0.85381824
-0.045109719 0.15682916 0.85500002
-0.034972873 0.15674341 0.85560012
-0.024689527 0.15728362 0.85663152
-0.014689843 0.15834001 0.85699999
-0.0045752386 0.15861487 0.85759991
0.0027779047 0.15894173 0.85760003
0.014708571 0.15934287 0.85800004
0.022062857 0.15934287 0.85800004
-0.080142856 0.16109525 0.85000002
-0.073730722 0.16164215 0.85075003
-0.064108871 0.16323529 0.85094756
-0.054834291 0.16295549 0.85127294
-0.04553676 0.1624451 0.85200012
-0.03494826 0.16262017 0.85206652
-0.024391372 0.16328432 0.85193759
-0.014628137 0.16378747 0.85199994
-0.0048761899 0.1641598 0.85333329
0.0049832286 0.1650265 0.85424393
0.014671749 0.16545075 0.85580975
0.024271959 0.1655872 0.85525006
0.034651961 0.16674198 0.8549999
0.045194678 0.16662438 0.85641187
0.055187535 0.16785629 0.8567273
0.062878646 0.16810207 0.85742861
0.0080952384 0.17080952 0.85000002
0.014950303 0.17165509 0.85054559
0.024694938 0.17244934 0.85094756
0.036128636 0.17221221 0.85053349
0.045652814 0.17338479 0.8518182
0.05570798 0.17394994 0.85282767
0.065003112 0.17417328 0.85315788
0.074937403 0.17464717 0.85358989
0.084718972 0.17497067 0.85399997
0.092211165 0.17460826 0.85466677
0.085000001 0.18052381 0.85000002
-0.075620845 0.13884117 0.8683334
-0.063726671 0.13931587 0.86900008
-0.058760952 0.13986762 0.86900002
-0.074655212 0.14523323 0.86421943
-0.064894013 0.14567149 0.86640006
-0.054517884 0.14537694 0.86733323
-0.044612069 0.14539558 0.86744452
-0.034891028 0.14562921 0.866606
-0.024856519 0.14552549 0.86751443
-0.015118913 0.1465781 0.8681429
-0.0049265902 0.14694503 0.8678
0.0026892857 0.148265 0.86849999
0.014897143 0.14979905 0.86900008
0.021518096 0.14979905 0.86900002
-0.075147614 0.1521381 0.86000007
-0.06466727 0.15198416 0.86087507
-0.055367917 0.15252814 0.86176932
-0.045049757 0.15250842 0.86133331
-0.034358669 0.15202647 0.86100018
-0.024430063 0.15246533 0.86130458
-0.014775524 0.15349552 0.86190021
-0.0050304462 0.15390307 0.86246884
0.0051449793 0.15500119 0.86325735
0.0148098 0.1549765 0.86392093
0.024752447 0.15541886 0.86417067
0.034618195 0.15601319 0.86613792
0.044413712 0.1564479 0.86552
0.054268029 0.15749732 0.86678946
0.064781718 0.15748803 0.86760008
0.07437849 0.15701994 0.86775011
0.08336743 0.15879257 0.86840004
0.091759048 0.15913287 0.86800003
0.02784762 0.16135238 0.86000001
0.034850482 0.16133383 0.86099994
0.044983812 0.16138928 0.86075014
0.055350084 0.16232531 0.8615002
0.065840304 0.16446596 0.86212498
0.075325288 0.1651877 0.86408907
0.085508287 0.16525485 0.8633095
0.092537642 0.16533753 0.8614738
0.074533336 0.17118095 0.86000001
-0.078534052 0.12866405 0.87725002
-0.058533333 0.12960953 0.87800002
-0.075004794 0.13521037 0.87540764
-0.064588316 0.13515086 0.87434375
-0.055112816 0.13509761 0.87491429
-0.04497749 0.13491891 0.87452793
-0.035135917 0.13568106 0.8750968
-0.025190134 0.1361209 0.87535733
-0.015016946 0.13682586 0.87604183
-0.0050148806 0.1370756 0.87762517
0.0035117138 0.13842542 0.87770015
-0.070509523 0.14018953 0.87100005
-0.066361904 0.14018953 0.87100005
-0.053919055 0.14018953 0.87100011
-0.044794291 0.14018953 0.87100017
-0.034010477 0.14074254 0.87100017
-0.024530206 0.14042655 0.87100017
-0.014461225 0.14142054 0.87128597
-0.0050318763 0.14192185 0.87205899
0.0054530352 0.14419837 0.87237489
0.014975053 0.1447311 0.87341672
0.024982059 0.14488126 0.87433344
0.034802649 0.14556184 0.87528121
0.045052167 0.14557488 0.87445164
0.054777868 0.14517063 0.87458813
0.064766198 0.14669056 0.87558341
0.07471931 0.14758226 0.87605572
0.085145712 0.14858621 0.87650007
0.093023621 0.14730059 0.87680006
0.0066361907 0.15097335 0.87100005
0.026544763 0.15014382 0.87100005
0.034910116 0.15119131 0.87115407
0.044940677 0.15170529 0.87100023
0.054945879 0.15256919 0.87126094
0.064454891 0.15253186 0.87172747
0.074743181 0.15197587 0.87200016
0.085014112 0.15398785 0.87193739
0.092336871 0.1545101 0.87252957
-0.074119598 0.11716451 0.88871431
-0.063741907 0.1191381 0.88900006
-0.056388002 0.11870266 0.88900006
-0.035136666 0.11895666 0.88900006
-0.026246667 0.11938 0.88900012
-0.01382889 0.11655778 0.88900012
-0.0055606128 0.11804728 0.88807142
0.0018622857 0.11695715 0.88860005
-0.074108839 0.12488801 0.88285708
-0.065208316 0.12556773 0.88407469
-0.055319957 0.12538239 0.88456392
-0.045469057 0.12574477 0.88534135
-0.035561625 0.12506117 0.88618904
-0.025284452 0.12556343 0.88492507
-0.015335729 0.12565923 0.88670963
-0.0050683459 0.12533204 0.88702613
0.0046495236 0.12722032 0.88760006
0.015223069 0.12768647 0.88788891
0.022376193 0.12808859 0.88900006
0.035983332 0.12805833 0.889
0.045212001 0.12886269 0.88900006
0.055880003 0.12954001 0.88900006
-0.074255243 0.1319162 0.88000005
-0.067885719 0.13158095 0.88000005
-0.051123813 0.13158095 0.88000005
-0.034400955 0.13089049 0.88100004
-0.025057146 0.13180001 0.88022232
-0.015101693 0.13172901 0.88100004
-0.0050327382 0.13188298 0.88062507
0.0055091064 0.13392435 0.88131255
0.015126417 0.13527387 0.88226181
0.025270341 0.13560055 0.88442868
0.035179488 0.13520424 0.884359
0.045661766 0.13516085 0.88407695
0.055404335 0.13586842 0.88480014
0.064545885 0.13592847 0.88558811
0.074646994 0.13595048 0.88666654
0.084637895 0.13641773 0.88799995
0.09221144 0.1368064 0.88828576
0.037272111 0.14105606 0.88085723
0.044036433 0.14112882 0.88075
0.058666669 0.14163812 0.88000005
0.066373885 0.14232819 0.88057148
0.075808562 0.14273319 0.88116658
0.085356317 0.14377576 0.88174993
0.092519939 0.14255993 0.88253856
-0.071291111 0.11435018 0.89233333
-0.064780496 0.11469005 0.89296591
-0.054030545 0.11529782 0.89268994
-0.044818133 0.11629219 0.89180785
-0.0356053 0.11607226 0.89275998
-0.02544817 0.11623573 0.89288479
-0.016040431 0.1172073 0.89115
0.0066455244 0.11763811 0.89379996
0.015216128 0.11743964 0.89746666
0.025308283 0.11774464 0.89738458
0.03434667 0.11797335 0.89599997
0.044410795 0.1187016 0.89666677
0.054312382 0.11802876 0.89745462
0.060586669 0.11861334 0.89600003
-0.048368573 0.12134571 0.89100003
-0.021214288 0.12134571 0.89100003
-0.014425715 0.12134571 0.89099997
0.0057859528 0.12257176 0.89315003
0.015321746 0.12256725 0.89375007
0.026135568 0.12435155 0.89348584
0.035133731 0.12314486 0.89433336
0.04482187 0.12344685 0.89396441
0.054427102 0.12447302 0.89408123
0.064709194 0.12514852 0.89397639
0.074378975 0.12722503 0.89508343
0.085310869 0.12618309 0.89725006
0.091887146 0.12693095 0.89750004
0.06703715 0.13152859 0.89100003
0.075588576 0.13121359 0.89174998
0.085141152 0.13136403 0.89219999
0.090950005 0.13089859 0.89250004
0.017161906 0.11584286 0.90100002
0.074654281 0.11927524 0.90100002
0.076048695 0.12260036 0.90100002
0.084736913 0.12292214 0.90100002
