# .PCD v0.7 - Point Cloud Data file format
VERSION 0.7
FIELDS x y z rgba
SIZE 4 4 4 4
TYPE F F F U
COUNT 1 1 1 1
WIDTH 1143
HEIGHT 1
VIEWPOINT 0 0 0 1 0 0 0
POINTS 1143
DATA ascii
0.079947628 0.26623335 0.81500006 6510169
0.081500001 0.26623335 0.81500006 6510169
0.083052389 0.26623335 0.81500006 6509911
0.08460477 0.26623335 0.81500006 6444373
0.086157143 0.26623335 0.81500006 6378836
0.087924771 0.26688668 0.81700003 6378835
0.089261912 0.26623335 0.81500006 6378836
0.090814285 0.26623335 0.81500006 6313302
0.092366673 0.26623335 0.81500006 6248022
0.093919054 0.26623335 0.81500006 6313302
0.095471434 0.26623335 0.81500006 6378837
0.097023815 0.26623335 0.81500006 6313301
0.098576196 0.26623335 0.81500006 6313556
0.10000572 0.26590666 0.81400001 6313299
0.10168096 0.26623335 0.81500006 6378835
0.10323334 0.26623335 0.81500006 6378579
0.10478573 0.26623335 0.81500006 6378578
0.1063381 0.26623335 0.81500006 6378578
0.10789049 0.26623335 0.81500006 6378578
0.10944287 0.26623335 0.81500006 6312786
0.11099524 0.26623335 0.81500006 6312785
0.11254763 0.26623335 0.81500006 6247249
0.11410001 0.26623335 0.81500006 6181712
0.11593619 0.26688668 0.81700003 6115920
0.11749239 0.26688668 0.81700003 6050384
0.11904858 0.26688668 0.81700003 6116176
0.12060476 0.26688668 0.81700003 6181712
0.12216096 0.26688668 0.81700003 6115920
0.12402001 0.26754001 0.81900007 6115919
0.12558001 0.26754001 0.81900007 6049870
0.12714 0.26754001 0.81900007 5984077
0.1287 0.26754001 0.81900007 5918541
0.13026001 0.26754001 0.81900007 5918798
0.13182001 0.26754001 0.81900007 5853008
0.13370572 0.26819336 0.82100004 5787475
0.13494001 0.26754001 0.81900007 5853015
0.13650002 0.26754001 0.81900007 5984082
0.13806 0.26754001 0.81900007 5853006
0.13996094 0.26819336 0.82100004 5787468
0.14152478 0.26819336 0.82100004 5655882
0.14308858 0.26819336 0.82100004 5523526
0.14394762 0.26688668 0.81700003 5325890
0.14550382 0.26688668 0.81700003 5127995
0.14706001 0.26688668 0.81700003 4668980
0.14825238 0.26623335 0.81500006 4209971
0.14980477 0.26623335 0.81500006 4602162
0.15117142 0.26590666 0.81400001 4994607
0.15290953 0.26623335 0.81500006 4405036
0.15427239 0.26590666 0.81400001 3749930
0.15582286 0.26590666 0.81400001 3814952
0.15698668 0.26525337 0.81200004 3880235
0.15853333 0.26525337 0.81200004 4338990
0.16008002 0.26525337 0.81200004 4732982
0.16222382 0.26623335 0.81500006 4733758
0.1637762 0.26623335 0.81500006 4799810
0.16614002 0.26754001 0.81900007 4997447
0.16810954 0.26819336 0.82100004 5195081
0.16967334 0.26819336 0.82100004 5326924
0.17165428 0.26884666 0.82300001 5524298
0.17280096 0.26819336 0.82100004 5655625
0.17436476 0.26819336 0.82100004 5786953
0.17592858 0.26819336 0.82100004 5918026
0.17749238 0.26819336 0.82100004 5983564
0.1790562 0.26819336 0.82100004 5786958
0.18106 0.26884666 0.82300001 5590094
0.18262762 0.26884666 0.82300001 5655374
0.18419524 0.26884666 0.82300001 5654860
0.1862143 0.26950002 0.82500005 5589578
0.18778573 0.26950002 0.82500005 5524042
0.18935715 0.26950002 0.82500005 5524043
0.19092858 0.26950002 0.82500005 5524043
0.19250001 0.26950002 0.82500005 5524300
0.19454192 0.27015334 0.82700002 5590090
0.19564287 0.26950002 0.82500005 5524552
0.19721429 0.26950002 0.82500005 5459019
0.19878572 0.26950002 0.82500005 5524302
0.20035715 0.26950002 0.82500005 5655117
0.20192857 0.26950002 0.82500005 5589836
0.20350002 0.26950002 0.82500005 5524299
0.20507143 0.26950002 0.82500005 5524042
0.20664287 0.26950002 0.82500005 5589320
0.2082143 0.26950002 0.82500005 5524038
0.21029429 0.27015334 0.82700002 5524296
0.21186954 0.27015334 0.82700002 5524042
0.21344477 0.27015334 0.82700002 5524041
0.21502002 0.27015334 0.82700002 5523528
0.21659523 0.27015334 0.82700002 5588808
0.21817048 0.27015334 0.82700002 5524041
0.21974571 0.27015334 0.82700002 5459017
0.22132096 0.27015334 0.82700002 5392713
0.22289619 0.27015334 0.82700002 5327432
0.2250143 0.27080667 0.82900006 5327176
0.22659335 0.27080667 0.82900006 5393478
0.22817239 0.27080667 0.82900006 5392709
0.22975144 0.27080667 0.82900006 5392198
0.23188858 0.27146003 0.83100003 5457736
0.23347142 0.27146003 0.83100003 5523525
0.23505428 0.27146003 0.83100003 5457986
0.23663715 0.27146003 0.83100003 5392194
0.23764668 0.27080667 0.82900006 5457731
0.23980287 0.27146003 0.83100003 5457986
0.24138571 0.27146003 0.83100003 5391681
0.24296857 0.27146003 0.83100003 5326401
0.24455145 0.27146003 0.83100003 5326401
0.2461343 0.27146003 0.83100003 5326401
0.24771714 0.27146003 0.83100003 5326401
0.24930002 0.27146003 0.83100003 5326149
-0.24927428 0.25825715 0.78600001 12297101
-0.24714667 0.25760001 0.78400004 12362636
-0.24627998 0.25825715 0.78600001 12427918
-0.24478285 0.25825715 0.78600001 12624528
-0.24328572 0.25825715 0.78600001 12821136
-0.24178858 0.25825715 0.78600001 12559248
-0.24090287 0.25891429 0.78800005 12296079
-0.23940191 0.25891429 0.78800005 12231053
-0.23790097 0.25891429 0.78800005 12165517
-0.23640001 0.25891429 0.78800005 12231053
-0.23489906 0.25891429 0.78800005 12361870
-0.23339809 0.25891429 0.78800005 12165007
-0.23189716 0.25891429 0.78800005 11967373
-0.23068857 0.25924286 0.78900003 11968140
-0.22889525 0.25891429 0.78800005 12033422
-0.2273943 0.25891429 0.78800005 11968143
-0.22589335 0.25891429 0.78800005 11902606
-0.2243924 0.25891429 0.78800005 11902605
-0.22317429 0.25924286 0.78900003 11902349
-0.22167143 0.25924286 0.78900003 11902093
-0.22016859 0.25924286 0.78900003 11902093
-0.21866572 0.25924286 0.78900003 11901837
-0.21716286 0.25924286 0.78900003 11967373
-0.21566001 0.25924286 0.78900003 11902093
-0.21415715 0.25924286 0.78900003 11836043
-0.21265429 0.25924286 0.78900003 11770505
-0.21115144 0.25924286 0.78900003 11704714
-0.21018 0.25989997 0.79100001 11705483
-0.20867334 0.25989997 0.79100001 11771019
-0.20716667 0.25989997 0.79100001 11771019
-0.20566 0.25989997 0.79100001 11836554
-0.20415334 0.25989997 0.79100001 11705482
-0.20264667 0.25989997 0.79100001 11639689
-0.20114 0.25989997 0.79100001 11571592
-0.19963333 0.25989997 0.79100001 11573639
-0.19812667 0.25989997 0.79100001 11574407
-0.19662 0.25989997 0.79100001 11639175
-0.19511333 0.25989997 0.79100001 11572870
-0.19360666 0.25989997 0.79100001 11572871
-0.1921 0.25989997 0.79100001 11507337
-0.19107525 0.26055717 0.79300004 11507592
-0.18956478 0.26055717 0.79300004 11311239
-0.18758 0.25989997 0.79100001 11180427
-0.18607333 0.25989997 0.79100001 11377552
-0.18456666 0.25989997 0.79100001 11639694
-0.18305999 0.25989997 0.79100001 11639947
-0.18155333 0.25989997 0.79100001 11639691
-0.18050191 0.26055717 0.79300004 11574154
-0.17853999 0.25989997 0.79100001 11574157
-0.17748097 0.26055717 0.79300004 11508624
-0.17597048 0.26055717 0.79300004 11506047
-0.17446001 0.26055717 0.79300004 11372655
-0.17251334 0.25989997 0.79100001 11309177
-0.17057429 0.25924286 0.78900003 12491652
-0.16885714 0.25891429 0.78800005 13741188
-0.16735621 0.25891429 0.78800005 13876611
-0.16585524 0.25891429 0.78800005 14074253
-0.16435429 0.25891429 0.78800005 14665110
-0.16306001 0.25924286 0.78900003 15316862
-0.16155715 0.25924286 0.78900003 11568230
-0.16046 0.25989997 0.79100001 7886183
-0.15975715 0.26121429 0.79500002 8742503
-0.15824285 0.26121429 0.79500002 9664624
-0.15672857 0.26121429 0.79500002 9863033
-0.15560476 0.26187146 0.79700005 10126718
-0.15408668 0.26187146 0.79700005 10324867
-0.15256858 0.26187146 0.79700005 10521731
-0.15105049 0.26187146 0.79700005 10587524
-0.14953238 0.26187146 0.79700005 10718082
-0.14801429 0.26187146 0.79700005 10586752
-0.14649621 0.26187146 0.79700005 10521986
-0.14497809 0.26187146 0.79700005 10653573
-0.14346001 0.26187146 0.79700005 10784646
-0.14194192 0.26187146 0.79700005 10784904
-0.1406 0.26220003 0.79800004 10784903
-0.13908 0.26220003 0.79800004 10784902
-0.13756 0.26220003 0.79800004 10784902
-0.13604 0.26220003 0.79800004 10916742
-0.13451999 0.26220003 0.79800004 11047560
-0.13283333 0.26187146 0.79700005 10850954
-0.13131525 0.26187146 0.79700005 10654088
-0.12979715 0.26187146 0.79700005 10588293
-0.12827906 0.26187146 0.79700005 10587779
-0.12676096 0.26187146 0.79700005 10456193
-0.12524286 0.26187146 0.79700005 10389630
-0.12388001 0.26220003 0.79800004 10323836
-0.12236001 0.26220003 0.79800004 10323833
-0.12084001 0.26220003 0.79800004 10061686
-0.11932001 0.26220003 0.79800004 9865341
-0.1178 0.26220003 0.79800004 10128003
-0.11628 0.26220003 0.79800004 10390661
-0.11476 0.26220003 0.79800004 10522759
-0.11324 0.26220003 0.79800004 10719366
-0.112 0.26285714 0.80000001 10719366
-0.11047619 0.26285714 0.80000001 10719108
-0.10895238 0.26285714 0.80000001 10587779
-0.10742857 0.26285714 0.80000001 10521986
-0.10564 0.26220003 0.79800004 10456194
-0.10412 0.26220003 0.79800004 10390915
-0.1026 0.26220003 0.79800004 10391173
-0.10108 0.26220003 0.79800004 10390661
-0.09956 0.26220003 0.79800004 10324869
-0.097917147 0.26187146 0.79700005 10324867
-0.096399054 0.26187146 0.79700005 10324865
-0.094880961 0.26187146 0.79700005 10324865
-0.09336286 0.26187146 0.79700005 10324865
-0.091844767 0.26187146 0.79700005 10324610
-0.090440005 0.26220003 0.79800004 10390660
-0.088920005 0.26220003 0.79800004 10521218
-0.087400004 0.26220003 0.79800004 10324096
-0.085880004 0.26220003 0.79800004 10126975
-0.084360003 0.26220003 0.79800004 10192510
-0.082840003 0.26220003 0.79800004 10258047
-0.081320003 0.26220003 0.79800004 10127488
-0.079800002 0.26220003 0.79800004 10061694
-0.078476191 0.26285714 0.80000001 9996157
-0.076952383 0.26285714 0.80000001 9995645
-0.075428575 0.26285714 0.80000001 9930109
-0.07390476 0.26285714 0.80000001 9863547
-0.072380953 0.26285714 0.80000001 9732217
-0.070857145 0.26285714 0.80000001 9666425
-0.069333337 0.26285714 0.80000001 9600890
-0.06780953 0.26285714 0.80000001 9600634
-0.06645143 0.26351428 0.80200005 9535098
-0.064761907 0.26285714 0.80000001 9535356
-0.063396193 0.26351428 0.80200005 9470335
-0.061868574 0.26351428 0.80200005 9470075
-0.060491432 0.26417142 0.80400002 9404279
-0.058813337 0.26351428 0.80200005 9404279
-0.057285715 0.26351428 0.80200005 9338742
-0.05561905 0.26285714 0.80000001 9338743
-0.054230478 0.26351428 0.80200005 9404279
-0.052571427 0.26285714 0.80000001 9469560
-0.051047619 0.26285714 0.80000001 9404024
-0.049523808 0.26285714 0.80000001 9404022
-0.048 0.26285714 0.80000001 9272948
-0.046592385 0.26351428 0.80200005 9206645
-0.045064762 0.26351428 0.80200005 9075318
-0.043537147 0.26351428 0.80200005 8943733
-0.042009525 0.26351428 0.80200005 8812917
-0.04048191 0.26351428 0.80200005 8747125
-0.039051428 0.26417142 0.80400002 8812661
-0.037519999 0.26417142 0.80400002 8878196
-0.035988573 0.26417142 0.80400002 8812914
-0.034457143 0.26417142 0.80400002 8747124
-0.032925718 0.26417142 0.80400002 8746615
-0.031394284 0.26417142 0.80400002 8812146
-0.029862858 0.26417142 0.80400002 8680814
-0.028331429 0.26417142 0.80400002 8615024
-0.026800001 0.26417142 0.80400002 8483954
-0.025268573 0.26417142 0.80400002 8352111
-0.023737142 0.26417142 0.80400002 8089453
-0.022205714 0.26417142 0.80400002 7892074
-0.020674286 0.26417142 0.80400002 7957351
-0.019190477 0.26482856 0.80600005 8088679
-0.01765524 0.26482856 0.80600005 8088679
-0.01612 0.26482856 0.80600005 8088935
-0.014584763 0.26482856 0.80600005 8089191
-0.013049524 0.26482856 0.80600005 8154472
-0.011514287 0.26482856 0.80600005 8154474
-0.0099790478 0.26482856 0.80600005 8154216
-0.0084228572 0.26417142 0.80400002 8088421
-0.0068914285 0.26417142 0.80400002 8022885
-0.0053733336 0.26482856 0.80600005 7956836
-0.0038285714 0.26417142 0.80400002 7956580
-0.0023028573 0.26482856 0.80600005 7891300
-0.00076761912 0.26482856 0.80600005 7825764
0.00076952385 0.26548573 0.80800003 7759716
0.0023085715 0.26548573 0.80800003 7759716
0.0038476191 0.26548573 0.80800003 7956324
0.0053866669 0.26548573 0.80800003 8218215
0.0069257147 0.26548573 0.80800003 8021611
0.008464762 0.26548573 0.80800003 7890790
0.01000381 0.26548573 0.80800003 7825762
0.011542858 0.26548573 0.80800003 7759967
0.013081905 0.26548573 0.80800003 7759196
0.014620952 0.26548573 0.80800003 7758942
0.01616 0.26548573 0.80800003 7627872
0.01769905 0.26548573 0.80800003 7562337
0.019238096 0.26548573 0.80800003 7496803
0.020777144 0.26548573 0.80800003 7496800
0.022316191 0.26548573 0.80800003 7430749
0.023914289 0.26614287 0.81000006 7365215
0.025457144 0.26614287 0.81000006 7496290
0.027000003 0.26614287 0.81000006 7627357
0.028542859 0.26614287 0.81000006 7430233
0.030085716 0.26614287 0.81000006 7299162
0.031706665 0.26680002 0.81200004 7364955
0.033253334 0.26680002 0.81200004 7495773
0.0348 0.26680002 0.81200004 7364447
0.036436189 0.26745716 0.81400001 7233373
0.037893336 0.26680002 0.81200004 7168091
0.039440002 0.26680002 0.81200004 7168092
0.040986668 0.26680002 0.81200004 7233630
0.042533338 0.26680002 0.81200004 7298907
0.043971431 0.26614287 0.81000006 7167832
0.045514289 0.26614287 0.81000006 7102042
0.047057144 0.26614287 0.81000006 7035996
0.048720002 0.26680002 0.81200004 6970972
0.050266668 0.26680002 0.81200004 7036509
0.051813334 0.26680002 0.81200004 7101786
0.053360004 0.26680002 0.81200004 7232855
0.05490667 0.26680002 0.81200004 7363674
0.056453332 0.26680002 0.81200004 7101277
0.058000002 0.26680002 0.81200004 6904667
0.059546668 0.26680002 0.81200004 6839385
0.061093334 0.26680002 0.81200004 6838872
0.062640004 0.26680002 0.81200004 6773335
0.06418667 0.26680002 0.81200004 6707798
0.065733336 0.26680002 0.81200004 6642518
0.067445718 0.26745716 0.81400001 6576724
0.068996191 0.26745716 0.81400001 6576722
0.070546664 0.26745716 0.81400001 6642259
0.072097145 0.26745716 0.81400001 6642261
0.073647618 0.26745716 0.81400001 6707546
0.075198092 0.26745716 0.81400001 6773087
0.076748572 0.26745716 0.81400001 6903899
0.078299053 0.26745716 0.81400001 6641751
0.079849526 0.26745716 0.81400001 6444631
0.0814 0.26745716 0.81400001 6444630
0.083052389 0.26778573 0.81500006 6444373
0.08460477 0.26778573 0.81500006 6378580
0.086157143 0.26778573 0.81500006 6378579
0.087709531 0.26778573 0.81500006 6313553
0.089261912 0.26778573 0.81500006 6247762
0.090814285 0.26778573 0.81500006 6182226
0.092366673 0.26778573 0.81500006 6181971
0.093919054 0.26778573 0.81500006 6181717
0.095471434 0.26778573 0.81500006 6247252
0.097023815 0.26778573 0.81500006 6247252
0.098455235 0.26745716 0.81400001 6247508
0.10000572 0.26745716 0.81400001 6247763
0.10155619 0.26745716 0.81400001 6247507
0.10323334 0.26778573 0.81500006 6247507
0.10478573 0.26778573 0.81500006 6313042
0.1063381 0.26778573 0.81500006 6313041
0.10789049 0.26778573 0.81500006 6312785
0.10944287 0.26778573 0.81500006 6247249
0.11099524 0.26778573 0.81500006 6247249
0.11254763 0.26778573 0.81500006 6181713
0.11410001 0.26778573 0.81500006 6115921
0.11565238 0.26778573 0.81500006 6050385
0.11749239 0.26844287 0.81700003 6050386
0.11875715 0.26778573 0.81500006 6050643
0.12030953 0.26778573 0.81500006 6050385
0.12186191 0.26778573 0.81500006 6050384
0.12371714 0.26844287 0.81700003 6115407
0.12527333 0.26844287 0.81700003 5984079
0.12682953 0.26844287 0.81700003 5918285
0.12838572 0.26844287 0.81700003 5852747
0.12994191 0.26844287 0.81700003 5852749
0.1314981 0.26844287 0.81700003 5787471
0.13338001 0.26910001 0.81900007 5787473
0.13494001 0.26910001 0.81900007 5787474
0.13650002 0.26910001 0.81900007 5852751
0.13806 0.26910001 0.81900007 5787213
0.13962001 0.26910001 0.81900007 5721930
0.14118001 0.26910001 0.81900007 5590343
0.14274001 0.26910001 0.81900007 5524034
0.14394762 0.26844287 0.81700003 5260862
0.14550382 0.26844287 0.81700003 5063476
0.14669999 0.26778573 0.81500006 4208682
0.14825238 0.26778573 0.81500006 3356207
0.14980477 0.26778573 0.81500006 4279348
0.15117142 0.26745716 0.81400001 5194548
0.15272191 0.26745716 0.81400001 4602420
0.15427239 0.26745716 0.81400001 4077876
0.15544 0.26680002 0.81200004 3880500
0.15698668 0.26680002 0.81200004 3749174
0.15853333 0.26680002 0.81200004 4404535
0.16047429 0.26745716 0.81400001 5126458
0.16222382 0.26778573 0.81500006 4931133
0.1637762 0.26778573 0.81500006 4800065
0.16614002 0.26910001 0.81900007 4931653
0.16770001 0.26910001 0.81900007 5129288
0.16967334 0.26975715 0.82100004 5260619
0.17123716 0.26975715 0.82100004 5392713
0.17280096 0.26975715 0.82100004 5524552
0.17436476 0.26975715 0.82100004 5721418
0.17592858 0.26975715 0.82100004 5787212
0.17749238 0.26975715 0.82100004 5918029
0.1790562 0.26975715 0.82100004 5787215
0.18062001 0.26975715 0.82100004 5721166
0.18262762 0.27041429 0.82300001 5655630
0.18419524 0.27041429 0.82300001 5655116
0.18576287 0.27041429 0.82300001 5589578
0.18733048 0.27041429 0.82300001 5524042
0.18935715 0.27107146 0.82500005 5458250
0.19092858 0.27107146 0.82500005 5458508
0.19203334 0.27041429 0.82300001 5524301
0.19407144 0.27107146 0.82500005 5589835
0.19564287 0.27107146 0.82500005 5458762
0.19721429 0.27107146 0.82500005 5327691
0.19830382 0.27041429 0.82300001 5524300
0.19987144 0.27041429 0.82300001 5786443
0.20143905 0.27041429 0.82300001 5655371
0.20350002 0.27107146 0.82500005 5589835
0.20507143 0.27107146 0.82500005 5524043
0.20664287 0.27107146 0.82500005 5523785
0.2082143 0.27107146 0.82500005 5524039
0.21029429 0.27172858 0.82700002 5524041
0.21186954 0.27172858 0.82700002 5524043
0.21344477 0.27172858 0.82700002 5523529
0.21502002 0.27172858 0.82700002 5457735
0.21607144 0.27107146 0.82500005 5457735
0.21764286 0.27107146 0.82500005 5457992
0.21921431 0.27107146 0.82500005 5457991
0.22078572 0.27107146 0.82500005 5392710
0.22235714 0.27107146 0.82500005 5327176
0.22447143 0.27172858 0.82700002 5327178
0.22604667 0.27172858 0.82700002 5327176
0.22817239 0.27238572 0.82900006 5327430
0.22975144 0.27238572 0.82900006 5326665
0.23133048 0.27238572 0.82900006 5392205
0.23290955 0.27238572 0.82900006 5457736
0.23448858 0.27238572 0.82900006 5392452
0.23606764 0.27238572 0.82900006 5392195
0.23764668 0.27238572 0.82900006 5392194
0.23922573 0.27238572 0.82900006 5392190
0.24080478 0.27238572 0.82900006 5326138
0.24238382 0.27238572 0.82900006 5326396
0.24396287 0.27238572 0.82900006 5326398
0.24554193 0.27238572 0.82900006 5326400
0.24712098 0.27238572 0.82900006 5260866
0.24870001 0.27238572 0.82900006 5260612
-0.24864002 0.25909334 0.78400004 12166284
-0.24714667 0.25909334 0.78400004 12165515
-0.24565333 0.25909334 0.78400004 12230541
-0.24478285 0.2597543 0.78600001 12296080
-0.24328572 0.2597543 0.78600001 12427407
-0.24178858 0.2597543 0.78600001 12296078
-0.24029143 0.2597543 0.78600001 12099469
-0.2387943 0.2597543 0.78600001 12099468
-0.23729715 0.2597543 0.78600001 12033932
-0.23580001 0.2597543 0.78600001 12099980
-0.23430286 0.2597543 0.78600001 12100492
-0.23280571 0.2597543 0.78600001 11967628
-0.23189716 0.26041523 0.78800005 11836301
-0.2303962 0.26041523 0.78800005 11836558
-0.22889525 0.26041523 0.78800005 11902350
-0.2273943 0.26041523 0.78800005 11836558
-0.22589335 0.26041523 0.78800005 11771021
-0.2243924 0.26041523 0.78800005 11771020
-0.22289144 0.26041523 0.78800005 11771019
-0.22167143 0.26074573 0.78900003 11771019
-0.22016859 0.26074573 0.78900003 11771019
-0.21866572 0.26074573 0.78900003 11770763
-0.21716286 0.26074573 0.78900003 11836554
-0.21566001 0.26074573 0.78900003 11770762
-0.21415715 0.26074573 0.78900003 11770506
-0.21265429 0.26074573 0.78900003 11704715
-0.21115144 0.26074573 0.78900003 11639178
-0.20964858 0.26074573 0.78900003 11639690
-0.20814572 0.26074573 0.78900003 11705227
-0.20664287 0.26074573 0.78900003 11836300
-0.20513999 0.26074573 0.78900003 11967371
-0.20363715 0.26074573 0.78900003 11770762
-0.2021343 0.26074573 0.78900003 11639688
-0.20063144 0.26074573 0.78900003 11573639
-0.19912858 0.26074573 0.78900003 11507846
-0.19762571 0.26074573 0.78900003 11507589
-0.19662 0.26140666 0.79100001 11507334
-0.19511333 0.26140666 0.79100001 11507335
-0.19360666 0.26140666 0.79100001 11441543
-0.1921 0.26140666 0.79100001 11441544
-0.19059333 0.26140666 0.79100001 11376008
-0.18908666 0.26140666 0.79100001 11310984
-0.18710573 0.26074573 0.78900003 11245709
-0.18560286 0.26074573 0.78900003 11377299
-0.18456666 0.26140666 0.79100001 11574159
-0.18305999 0.26140666 0.79100001 11574155
-0.18155333 0.26140666 0.79100001 11573897
-0.18004666 0.26140666 0.79100001 11574152
-0.17853999 0.26140666 0.79100001 11574665
-0.17703332 0.26140666 0.79100001 10917259
-0.17552668 0.26140666 0.79100001 10257524
-0.17402001 0.26140666 0.79100001 10257758
-0.17251334 0.26140666 0.79100001 10323833
-0.17035811 0.26041523 0.78800005 11308180
-0.16885714 0.26041523 0.78800005 12368272
-0.16735621 0.26041523 0.78800005 12432525
-0.16585524 0.26041523 0.78800005 12562582
-0.16435429 0.26041523 0.78800005 12891807
-0.16306001 0.26074573 0.78900003 13221002
-0.1613524 0.26041523 0.78800005 10777718
-0.1600543 0.26074573 0.78900003 8347252
-0.15935525 0.26206765 0.79300004 7823731
-0.15784477 0.26206765 0.79300004 7238506
-0.15554573 0.26074573 0.78900003 8221538
-0.15521429 0.2627286 0.79500002 9204850
-0.15408668 0.26338953 0.79700005 9931650
-0.15256858 0.26338953 0.79700005 10652801
-0.15105049 0.26338953 0.79700005 10652801
-0.14915715 0.2627286 0.79500002 10652797
-0.14764287 0.2627286 0.79500002 10653050
-0.14612857 0.2627286 0.79500002 10587774
-0.14461428 0.2627286 0.79500002 10653314
-0.14310001 0.2627286 0.79500002 10718851
-0.14158572 0.2627286 0.79500002 10653317
-0.14042382 0.26338953 0.79700005 10522500
-0.13890572 0.26338953 0.79700005 10588036
-0.13738762 0.26338953 0.79700005 10653572
-0.13586953 0.26338953 0.79700005 10719621
-0.13435145 0.26338953 0.79700005 10851465
-0.13283333 0.26338953 0.79700005 10719886
-0.13131525 0.26338953 0.79700005 10654345
-0.12979715 0.26338953 0.79700005 10588549
-0.12827906 0.26338953 0.79700005 10588036
-0.12676096 0.26338953 0.79700005 10521988
-0.12524286 0.26338953 0.79700005 10520960
-0.12388001 0.26372001 0.79800004 10586749
-0.12236001 0.26372001 0.79800004 10652539
-0.12084001 0.26372001 0.79800004 10390138
-0.11932001 0.26372001 0.79800004 10127998
-0.1178 0.26372001 0.79800004 10259075
-0.11613429 0.26338953 0.79700005 10390147
-0.1146162 0.26338953 0.79700005 10522244
-0.11324 0.26372001 0.79800004 10588291
-0.11172 0.26372001 0.79800004 10521987
-0.1102 0.26372001 0.79800004 10521473
-0.10868 0.26372001 0.79800004 10455680
-0.10716 0.26372001 0.79800004 10390144
-0.10564 0.26372001 0.79800004 10324608
-0.10398953 0.26338953 0.79700005 10259073
-0.10247143 0.26338953 0.79700005 10259074
-0.10095334 0.26338953 0.79700005 10259328
-0.09943524 0.26338953 0.79700005 10259071
-0.097917147 0.26338953 0.79700005 10258815
-0.096399054 0.26338953 0.79700005 10258815
-0.094880961 0.26338953 0.79700005 10324351
-0.09336286 0.26338953 0.79700005 10324864
-0.091844767 0.26338953 0.79700005 10324612
-0.090326667 0.26338953 0.79700005 10324872
-0.088920005 0.26372001 0.79800004 10391172
-0.087290481 0.26338953 0.79700005 10192257
-0.085880004 0.26372001 0.79800004 9995391
-0.084254287 0.26338953 0.79700005 9995646
-0.082840003 0.26372001 0.79800004 10061696
-0.081320003 0.26372001 0.79800004 9995906
-0.079800002 0.26372001 0.79800004 9995903
-0.078280002 0.26372001 0.79800004 9929853
-0.076760009 0.26372001 0.79800004 9864061
-0.075240009 0.26372001 0.79800004 9732478
-0.073720008 0.26372001 0.79800004 9666684
-0.072200008 0.26372001 0.79800004 9600634
-0.07068 0.26372001 0.79800004 9534842
-0.069159999 0.26372001 0.79800004 9469306
-0.06780953 0.26438096 0.80000001 9469305
-0.066285715 0.26438096 0.80000001 9403768
-0.064761907 0.26438096 0.80000001 9338489
-0.063238099 0.26438096 0.80000001 9272954
-0.061714288 0.26438096 0.80000001 9273208
-0.060340952 0.26504192 0.80200005 9273207
-0.058666669 0.26438096 0.80000001 9273207
-0.057142857 0.26438096 0.80000001 9272951
-0.05561905 0.26438096 0.80000001 9272695
-0.054095238 0.26438096 0.80000001 9272696
-0.052571427 0.26438096 0.80000001 9338488
-0.051047619 0.26438096 0.80000001 9338489
-0.049523808 0.26438096 0.80000001 9272950
-0.048 0.26438096 0.80000001 9207156
-0.046592385 0.26504192 0.80200005 9141109
-0.045064762 0.26504192 0.80200005 9009526
-0.043537147 0.26504192 0.80200005 8878197
-0.042009525 0.26504192 0.80200005 8812916
-0.04048191 0.26504192 0.80200005 8812915
-0.038954284 0.26504192 0.80200005 8812915
-0.037426669 0.26504192 0.80200005 8878450
-0.035899047 0.26504192 0.80200005 8812913
-0.034371432 0.26504192 0.80200005 8747378
-0.03284381 0.26504192 0.80200005 8746867
-0.031394284 0.26570287 0.80400002 8681073
-0.029862858 0.26570287 0.80400002 8615279
-0.028331429 0.26570287 0.80400002 8548975
-0.026800001 0.26570287 0.80400002 8483439
-0.025268573 0.26570287 0.80400002 8352110
-0.023678096 0.26504192 0.80200005 8220526
-0.022150477 0.26504192 0.80200005 8088941
-0.020674286 0.26570287 0.80400002 8088940
-0.019142857 0.26570287 0.80400002 8154473
-0.017611429 0.26570287 0.80400002 8154726
-0.016080001 0.26570287 0.80400002 8155237
-0.014548571 0.26570287 0.80400002 8286053
-0.013017143 0.26570287 0.80400002 8416871
-0.011485714 0.26570287 0.80400002 8285289
-0.0099542858 0.26570287 0.80400002 8219751
-0.0084228572 0.26570287 0.80400002 8153958
-0.0068742861 0.26504192 0.80200005 8088421
-0.0053600003 0.26570287 0.80400002 8022373
-0.0038285714 0.26570287 0.80400002 7956581
-0.002297143 0.26570287 0.80400002 7891302
-0.00076571427 0.26570287 0.80400002 7826022
0.00076761912 0.2663638 0.80600005 7760230
0.0023028573 0.2663638 0.80600005 7694437
0.0038380953 0.2663638 0.80600005 7825508
0.0053733336 0.2663638 0.80600005 8022117
0.0069085718 0.2663638 0.80600005 7891047
0.00844381 0.2663638 0.80600005 7759972
0.01000381 0.26702476 0.80800003 7759969
0.011514287 0.2663638 0.80600005 7694430
0.013049524 0.2663638 0.80600005 7693660
0.014584763 0.2663638 0.80600005 7627870
0.01612 0.2663638 0.80600005 7562336
0.01765524 0.2663638 0.80600005 7562336
0.019190477 0.2663638 0.80600005 7562336
0.020725716 0.2663638 0.80600005 7628126
0.022316191 0.26702476 0.80800003 7496284
0.023855237 0.26702476 0.80800003 7299421
0.025394287 0.26702476 0.80800003 7430495
0.026933333 0.26702476 0.80800003 7496286
0.028472383 0.26702476 0.80800003 7365213
0.030011429 0.26702476 0.80800003 7299676
0.031628575 0.26768571 0.81000006 7299420
0.03317143 0.26768571 0.81000006 7364703
0.034714289 0.26768571 0.81000006 7233379
0.036346667 0.26834667 0.81200004 7167839
0.037800003 0.26768571 0.81000006 7168091
0.039342858 0.26768571 0.81000006 7168348
0.040986668 0.26834667 0.81200004 7168094
0.042428575 0.26768571 0.81000006 7233370
0.043971431 0.26768571 0.81000006 7167830
0.045514289 0.26768571 0.81000006 7167833
0.047057144 0.26768571 0.81000006 7036764
0.048600003 0.26768571 0.81000006 6971230
0.050266668 0.26834667 0.81200004 7036513
0.051813334 0.26834667 0.81200004 7101531
0.053360004 0.26834667 0.81200004 7101525
0.05490667 0.26834667 0.81200004 7167063
0.056453332 0.26834667 0.81200004 7035737
0.058000002 0.26834667 0.81200004 6904665
0.059546668 0.26834667 0.81200004 6839129
0.060942862 0.26768571 0.81000006 6838874
0.062485721 0.26768571 0.81000006 6773339
0.064028576 0.26768571 0.81000006 6707801
0.065571435 0.26768571 0.81000006 6642007
0.067280002 0.26834667 0.81200004 6576471
0.068826668 0.26834667 0.81200004 6576472
0.070373341 0.26834667 0.81200004 6642007
0.071920007 0.26834667 0.81200004 6576214
0.073647618 0.26900762 0.81400001 6576220
0.075198092 0.26900762 0.81400001 6641507
0.076748572 0.26900762 0.81400001 6706780
0.078299053 0.26900762 0.81400001 6575958
0.079849526 0.26900762 0.81400001 6444885
0.0814 0.26900762 0.81400001 6379092
0.082950473 0.26900762 0.81400001 6378836
0.084500946 0.26900762 0.81400001 6313044
0.086157143 0.2693381 0.81500006 6247250
0.087709531 0.2693381 0.81500006 6181712
0.089261912 0.2693381 0.81500006 6116175
0.090814285 0.2693381 0.81500006 6115919
0.092366673 0.2693381 0.81500006 6181457
0.093803808 0.26900762 0.81400001 6181716
0.095354289 0.26900762 0.81400001 6247508
0.096904762 0.26900762 0.81400001 6181716
0.098455235 0.26900762 0.81400001 6181716
0.10000572 0.26900762 0.81400001 6181716
0.10155619 0.26900762 0.81400001 6247251
0.10310667 0.26900762 0.81400001 6247251
0.10465714 0.26900762 0.81400001 6247250
0.10620762 0.26900762 0.81400001 6181713
0.1077581 0.26900762 0.81400001 6181712
0.10944287 0.2693381 0.81500006 6181456
0.11099524 0.2693381 0.81500006 6181201
0.11254763 0.2693381 0.81500006 6115922
0.11410001 0.2693381 0.81500006 6050386
0.11565238 0.2693381 0.81500006 5984850
0.11720477 0.2693381 0.81500006 5984852
0.11875715 0.2693381 0.81500006 6050135
0.12030953 0.2693381 0.81500006 6050131
0.12186191 0.2693381 0.81500006 6049872
0.12371714 0.26999906 0.81700003 6049616
0.12527333 0.26999906 0.81700003 5983824
0.12682953 0.26999906 0.81700003 5918285
0.12838572 0.26999906 0.81700003 5852490
0.12994191 0.26999906 0.81700003 5786956
0.1314981 0.26999906 0.81700003 5787215
0.13338001 0.27066001 0.81900007 5787214
0.13461047 0.26999906 0.81700003 5787214
0.13616668 0.26999906 0.81700003 5787213
0.13772286 0.26999906 0.81700003 5787212
0.13927905 0.26999906 0.81700003 5721928
0.14083524 0.26999906 0.81700003 5655876
0.14274001 0.27066001 0.81900007 5590335
0.14394762 0.26999906 0.81700003 5392698
0.14514764 0.2693381 0.81500006 5195565
0.14669999 0.2693381 0.81500006 4602144
0.14825238 0.2693381 0.81500006 4075563
0.14980477 0.2693381 0.81500006 4737846
0.15117142 0.26900762 0.81400001 5395513
0.15272191 0.26900762 0.81400001 5130044
0.15427239 0.26900762 0.81400001 4864830
0.15544 0.26834667 0.81200004 5060673
0.15698668 0.26834667 0.81200004 5191233
0.15853333 0.26834667 0.81200004 5259073
0.16047429 0.26900762 0.81400001 5392703
0.16222382 0.2693381 0.81500006 4930877
0.1637762 0.2693381 0.81500006 4538176
0.16614002 0.27066001 0.81900007 4800836
0.16770001 0.27066001 0.81900007 5129031
0.16926001 0.27066001 0.81900007 5260106
0.17123716 0.27132097 0.82100004 5392201
0.17280096 0.27132097 0.82100004 5524040
0.17436476 0.27132097 0.82100004 5655883
0.17592858 0.27132097 0.82100004 5786958
0.17749238 0.27132097 0.82100004 5983567
0.1790562 0.27132097 0.82100004 5852241
0.18062001 0.27132097 0.82100004 5655631
0.18262762 0.27198189 0.82300001 5655374
0.18419524 0.27198189 0.82300001 5655372
0.18576287 0.27198189 0.82300001 5589578
0.18733048 0.27198189 0.82300001 5458506
0.1888981 0.27198189 0.82300001 5458506
0.1904657 0.27198189 0.82300001 5524300
0.19203334 0.27198189 0.82300001 5524303
0.19360095 0.27198189 0.82300001 5590093
0.19516857 0.27198189 0.82300001 5524300
0.19673619 0.27198189 0.82300001 5458507
0.19830382 0.27198189 0.82300001 5524043
0.19987144 0.27198189 0.82300001 5655370
0.20143905 0.27198189 0.82300001 5589834
0.20300665 0.27198189 0.82300001 5590091
0.20457429 0.27198189 0.82300001 5524045
0.20664287 0.27264288 0.82500005 5523786
0.2082143 0.27264288 0.82500005 5458248
0.20978571 0.27264288 0.82500005 5458250
0.21186954 0.27330381 0.82700002 5392716
0.21292858 0.27264288 0.82500005 5326153
0.21450001 0.27264288 0.82500005 5392199
0.21607144 0.27264288 0.82500005 5457991
0.21764286 0.27264288 0.82500005 5392455
0.21868286 0.27198189 0.82300001 5392453
0.22025047 0.27198189 0.82300001 5392708
0.22181809 0.27198189 0.82300001 5327432
0.22392859 0.27264288 0.82500005 5327181
0.2255 0.27264288 0.82500005 5327178
0.22707145 0.27264288 0.82500005 5326920
0.22919716 0.27330381 0.82700002 5326925
0.23077238 0.27330381 0.82700002 5326418
0.23234762 0.27330381 0.82700002 5391948
0.23392285 0.27330381 0.82700002 5392198
0.2354981 0.27330381 0.82700002 5392452
0.23707333 0.27330381 0.82700002 5392194
0.23864858 0.27330381 0.82700002 5392187
0.24080478 0.27396479 0.82900006 5326132
0.24238382 0.27396479 0.82900006 5326392
0.24396287 0.27396479 0.82900006 5326396
0.24554193 0.27396479 0.82900006 5326400
0.24712098 0.27396479 0.82900006 5260612
0.24870001 0.27396479 0.82900006 5260356
-0.24949527 0.25992194 0.78200006 12098701
-0.24864002 0.26058668 0.78400004 12033164
-0.24714667 0.26058668 0.78400004 12033163
-0.24565333 0.26058668 0.78400004 12033420
-0.24416001 0.26058668 0.78400004 12033677
-0.24266668 0.26058668 0.78400004 12099468
-0.24117334 0.26058668 0.78400004 12034188
-0.23968001 0.26058668 0.78400004 11968139
-0.23818667 0.26058668 0.78400004 11967882
-0.23669335 0.26058668 0.78400004 11967626
-0.23580001 0.26125142 0.78600001 11902090
-0.23430286 0.26125142 0.78600001 11901578
-0.23280571 0.26125142 0.78600001 11770250
-0.23130858 0.26125142 0.78600001 11704970
-0.2303962 0.26191622 0.78800005 11770763
-0.2283143 0.26125142 0.78600001 11836299
-0.22681715 0.26125142 0.78600001 11771019
-0.22532 0.26125142 0.78600001 11705227
-0.22382286 0.26125142 0.78600001 11639692
-0.22289144 0.26191622 0.78800005 11639434
-0.22139049 0.26191622 0.78800005 11639177
-0.21988954 0.26191622 0.78800005 11639434
-0.21838859 0.26191622 0.78800005 11705226
-0.21688762 0.26191622 0.78800005 11770762
-0.21538669 0.26191622 0.78800005 11705226
-0.21388572 0.26191622 0.78800005 11704970
-0.21238478 0.26191622 0.78800005 11639178
-0.21088381 0.26191622 0.78800005 11639434
-0.20938288 0.26191622 0.78800005 11639690
-0.20788191 0.26191622 0.78800005 11639691
-0.20664287 0.26224858 0.78900003 11836557
-0.20513999 0.26224858 0.78900003 12098699
-0.20363715 0.26224858 0.78900003 11902088
-0.2021343 0.26224858 0.78900003 11705223
-0.20063144 0.26224858 0.78900003 11574150
-0.19912858 0.26224858 0.78900003 11442308
-0.19762571 0.26224858 0.78900003 11442307
-0.19612287 0.26224858 0.78900003 11441796
-0.19462001 0.26224858 0.78900003 11376518
-0.19311716 0.26224858 0.78900003 11376006
-0.19161429 0.26224858 0.78900003 11310471
-0.19011143 0.26224858 0.78900003 11310470
-0.18860857 0.26224858 0.78900003 11310726
-0.18710573 0.26224858 0.78900003 11376522
-0.18560286 0.26224858 0.78900003 11442829
-0.1841 0.26224858 0.78900003 11508362
-0.18305999 0.26291332 0.79100001 11508616
-0.18155333 0.26291332 0.79100001 11508614
-0.18004666 0.26291332 0.79100001 11574148
-0.17853999 0.26291332 0.79100001 11639942
-0.17703332 0.26291332 0.79100001 10325896
-0.17597048 0.26357812 0.79300004 9010288
-0.17402001 0.26291332 0.79100001 9140056
-0.17207715 0.26224858 0.78900003 9337440
-0.17035811 0.26191622 0.78800005 10124648
-0.16800001 0.26058668 0.78400004 10983543
-0.16650668 0.26058668 0.78400004 11056006
-0.16543429 0.26125142 0.78600001 11118214
-0.16435429 0.26191622 0.78800005 11114886
-0.16285335 0.26191622 0.78800005 11107957
-0.16094287 0.26125142 0.78600001 9987173
-0.15985143 0.26191622 0.78800005 8872043
-0.15895334 0.26291332 0.79100001 6839410
-0.15744667 0.26291332 0.79100001 4873828
-0.15594 0.26291332 0.79100001 6578262
-0.15482381 0.26357812 0.79300004 8352365
-0.15292667 0.26291332 0.79100001 9538436
-0.15103714 0.26224858 0.78900003 10783617
-0.14991333 0.26291332 0.79100001 10718335
-0.14840665 0.26291332 0.79100001 10653310
-0.1469 0.26291332 0.79100001 10653822
-0.14576097 0.26357812 0.79300004 10719104
-0.14425048 0.26357812 0.79300004 10719106
-0.14274001 0.26357812 0.79300004 10718594
-0.14122953 0.26357812 0.79300004 10521730
-0.14007142 0.26424286 0.79500002 10325375
-0.13855714 0.26424286 0.79500002 10456701
-0.13704287 0.26424286 0.79500002 10587776
-0.13552858 0.26424286 0.79500002 10587779
-0.13401428 0.26424286 0.79500002 10653830
-0.13249999 0.26424286 0.79500002 10654345
-0.13098572 0.26424286 0.79500002 10719879
-0.12947144 0.26424286 0.79500002 10654597
-0.12795714 0.26424286 0.79500002 10587782
-0.12644285 0.26424286 0.79500002 10588040
-0.12524286 0.26490763 0.79700005 10653315
-0.12372477 0.26490763 0.79700005 10784126
-0.12220667 0.26490763 0.79700005 10980478
-0.12084001 0.26524001 0.79800004 10652542
-0.11917048 0.26490763 0.79700005 10390144
-0.1178 0.26524001 0.79800004 10390146
-0.11613429 0.26490763 0.79700005 10455683
-0.1146162 0.26490763 0.79700005 10456453
-0.1130981 0.26490763 0.79700005 10521731
-0.11158 0.26490763 0.79700005 10390401
-0.11006191 0.26490763 0.79700005 10324607
-0.10854381 0.26490763 0.79700005 10258814
-0.10702572 0.26490763 0.79700005 10258814
-0.10550762 0.26490763 0.79700005 10193278
-0.10372857 0.26424286 0.79500002 10127743
-0.10221429 0.26424286 0.79500002 10128000
-0.1007 0.26424286 0.79500002 10193534
-0.09918572 0.26424286 0.79500002 10193533
-0.097671427 0.26424286 0.79500002 10193277
-0.096157148 0.26424286 0.79500002 10259580
-0.094642855 0.26424286 0.79500002 10324861
-0.09336286 0.26490763 0.79700005 10324862
-0.091844767 0.26490763 0.79700005 10390144
-0.090326667 0.26490763 0.79700005 10324610
-0.088808581 0.26490763 0.79700005 10258048
-0.087290481 0.26490763 0.79700005 10060669
-0.085772388 0.26490763 0.79700005 9929853
-0.084254287 0.26490763 0.79700005 9864573
-0.082840003 0.26524001 0.79800004 9864574
-0.081320003 0.26524001 0.79800004 9864575
-0.079800002 0.26524001 0.79800004 9929853
-0.078280002 0.26524001 0.79800004 9798523
-0.076760009 0.26524001 0.79800004 9732731
-0.075240009 0.26524001 0.79800004 9601146
-0.073720008 0.26524001 0.79800004 9535097
-0.072200008 0.26524001 0.79800004 9469049
-0.07068 0.26524001 0.79800004 9469049
-0.069159999 0.26524001 0.79800004 9403513
-0.067639999 0.26524001 0.79800004 9337975
-0.066119999 0.26524001 0.79800004 9207157
-0.064599998 0.26524001 0.79800004 9141623
-0.063079998 0.26524001 0.79800004 9141880
-0.061560001 0.26524001 0.79800004 9141880
-0.060190476 0.26590478 0.80000001 9141879
-0.058666669 0.26590478 0.80000001 9207415
-0.057142857 0.26590478 0.80000001 9207414
-0.05548 0.26524001 0.79800004 9207158
-0.053959999 0.26524001 0.79800004 9207159
-0.052440003 0.26524001 0.79800004 9272697
-0.050920002 0.26524001 0.79800004 9207419
-0.049400002 0.26524001 0.79800004 9207160
-0.047880001 0.26524001 0.79800004 9141622
-0.046476189 0.26590478 0.80000001 9140853
-0.044952381 0.26590478 0.80000001 9009525
-0.043428574 0.26590478 0.80000001 8878452
-0.042009525 0.26656953 0.80200005 8878707
-0.04048191 0.26656953 0.80200005 8878450
-0.038954284 0.26656953 0.80200005 8878450
-0.037426669 0.26656953 0.80200005 8878450
-0.035899047 0.26656953 0.80200005 8813170
-0.034371432 0.26656953 0.80200005 8812916
-0.03284381 0.26656953 0.80200005 8682102
-0.031316195 0.26656953 0.80200005 8615539
-0.029788572 0.26656953 0.80200005 8550000
-0.028260954 0.26656953 0.80200005 8548976
-0.026733335 0.26656953 0.80200005 8483696
-0.025205715 0.26656953 0.80200005 8417391
-0.023678096 0.26656953 0.80200005 8351855
-0.022150477 0.26656953 0.80200005 8351597
-0.020622859 0.26656953 0.80200005 8286060
-0.019142857 0.2672343 0.80400002 8220521
-0.017611429 0.2672343 0.80400002 8220519
-0.016040001 0.26656953 0.80200005 8220518
-0.014512382 0.26656953 0.80200005 8417381
-0.012984763 0.26656953 0.80200005 8679014
-0.011457143 0.26656953 0.80200005 8481896
-0.0099295247 0.26656953 0.80200005 8285286
-0.0084019052 0.26656953 0.80200005 8219493
-0.0068742861 0.26656953 0.80200005 8219237
-0.005346667 0.26656953 0.80200005 8088164
-0.0038190477 0.26656953 0.80200005 8022372
-0.0022914286 0.26656953 0.80200005 7956836
-0.00076380954 0.26656953 0.80200005 7891556
0.00076761912 0.26789904 0.80600005 7760740
0.0023028573 0.26789904 0.80600005 7694947
0.0038380953 0.26789904 0.80600005 7760482
0.0053733336 0.26789904 0.80600005 7825763
0.0069085718 0.26789904 0.80600005 7760229
0.00844381 0.26789904 0.80600005 7694435
0.0099790478 0.26789904 0.80600005 7694945
0.011514287 0.26789904 0.80600005 7694431
0.013017143 0.2672343 0.80400002 7628381
0.014548571 0.2672343 0.80400002 7562590
0.016080001 0.2672343 0.80400002 7562591
0.017611429 0.2672343 0.80400002 7562591
0.019142857 0.2672343 0.80400002 7693663
0.020725716 0.26789904 0.80600005 7824732
0.022260955 0.26789904 0.80600005 7562073
0.023796191 0.26789904 0.80600005 7299420
0.025394287 0.26856381 0.80800003 7364958
0.026933333 0.26856381 0.80800003 7430493
0.028472383 0.26856381 0.80800003 7365468
0.030011429 0.26856381 0.80800003 7299675
0.031550478 0.26856381 0.80800003 7299675
0.033089522 0.26856381 0.80800003 7298909
0.03462857 0.26856381 0.80800003 7167838
0.036167622 0.26856381 0.80800003 7102557
0.037706669 0.26856381 0.80800003 7102811
0.039245714 0.26856381 0.80800003 7168092
0.040885717 0.26922861 0.81000006 7168094
0.042323813 0.26856381 0.80800003 7167835
0.043862857 0.26856381 0.80800003 7167832
0.045401905 0.26856381 0.80800003 7233369
0.046940953 0.26856381 0.80800003 7102298
0.048600003 0.26922861 0.81000006 7036508
0.050142862 0.26922861 0.81000006 7036510
0.051685717 0.26922861 0.81000006 7102042
0.053228576 0.26922861 0.81000006 7036503
0.054771435 0.26922861 0.81000006 7036248
0.05631429 0.26922861 0.81000006 6970458
0.057857145 0.26922861 0.81000006 6904922
0.059400007 0.26922861 0.81000006 6905178
0.060942862 0.26922861 0.81000006 6904410
0.062485721 0.26922861 0.81000006 6839131
0.064028576 0.26922861 0.81000006 6773337
0.065571435 0.26922861 0.81000006 6707544
0.067114294 0.26922861 0.81000006 6642007
0.068657145 0.26922861 0.81000006 6642007
0.070200004 0.26922861 0.81000006 6641749
0.071920007 0.26989332 0.81200004 6575956
0.073466673 0.26989332 0.81200004 6510168
0.075013332 0.26989332 0.81200004 6510172
0.076559998 0.26989332 0.81200004 6510168
0.078106664 0.26989332 0.81200004 6510421
0.079653338 0.26989332 0.81200004 6510164
0.081200004 0.26989332 0.81200004 6379091
0.08274667 0.26989332 0.81200004 6313043
0.084500946 0.27055809 0.81400001 6247507
0.086051434 0.27055809 0.81400001 6181714
0.087601908 0.27055809 0.81400001 6050385
0.089152381 0.27055809 0.81400001 5984847
0.090702854 0.27055809 0.81400001 6115917
0.092253335 0.27055809 0.81400001 6246991
0.093803808 0.27055809 0.81400001 6247250
0.095354289 0.27055809 0.81400001 6247250
0.096904762 0.27055809 0.81400001 6181970
0.098455235 0.27055809 0.81400001 6116177
0.099760003 0.26989332 0.81200004 6181713
0.10155619 0.27055809 0.81400001 6247247
0.10310667 0.27055809 0.81400001 6246990
0.10465714 0.27055809 0.81400001 6246992
0.10620762 0.27055809 0.81400001 6116177
0.1077581 0.27055809 0.81400001 6050385
0.10930857 0.27055809 0.81400001 6115664
0.11085904 0.27055809 0.81400001 6181202
0.11254763 0.2708905 0.81500006 6050387
0.11410001 0.2708905 0.81500006 5984594
0.11565238 0.2708905 0.81500006 5984594
0.11720477 0.2708905 0.81500006 5984595
0.11875715 0.2708905 0.81500006 6050132
0.12030953 0.2708905 0.81500006 6115666
0.12186191 0.2708905 0.81500006 6049872
0.12341429 0.2708905 0.81500006 6049615
0.12496667 0.2708905 0.81500006 5983823
0.12651907 0.2708905 0.81500006 5918285
0.12807143 0.2708905 0.81500006 5852492
0.12962382 0.2708905 0.81500006 5786959
0.1311762 0.2708905 0.81500006 5787217
0.13272858 0.2708905 0.81500006 5787215
0.13461047 0.27155527 0.81700003 5787214
0.13616668 0.27155527 0.81700003 5787212
0.13772286 0.27155527 0.81700003 5787211
0.13927905 0.27155527 0.81700003 5787209
0.14083524 0.27155527 0.81700003 5721671
0.14239143 0.27155527 0.81700003 5721411
0.14394762 0.27155527 0.81700003 5524544
0.14514764 0.2708905 0.81500006 5326903
0.14669999 0.2708905 0.81500006 5061423
0.14825238 0.2708905 0.81500006 4866613
0.14980477 0.2708905 0.81500006 5196348
0.15135716 0.2708905 0.81500006 5590592
0.15290953 0.2708905 0.81500006 5658948
0.15427239 0.27055809 0.81400001 5723718
0.15544 0.26989332 0.81200004 6181704
0.15698668 0.26989332 0.81200004 6707524
0.15853333 0.26989332 0.81200004 6184769
0.16047429 0.27055809 0.81400001 5654849
0.16222382 0.2708905 0.81500006 4930626
0.1637762 0.2708905 0.81500006 4276292
0.16573429 0.27155527 0.81700003 4670021
0.16729049 0.27155527 0.81700003 5128775
0.16926001 0.27222002 0.81900007 5259850
0.17082001 0.27222002 0.81900007 5457738
0.17238 0.27222002 0.81900007 5523786
0.17394 0.27222002 0.81900007 5589323
0.17550001 0.27222002 0.81900007 5851725
0.17706001 0.27222002 0.81900007 6114382
0.17862001 0.27222002 0.81900007 5852240
0.18062001 0.27288479 0.82100004 5655375
0.18218382 0.27288479 0.82100004 5655118
0.18374763 0.27288479 0.82100004 5720652
0.18576287 0.2735495 0.82300001 5589578
0.18733048 0.2735495 0.82300001 5458504
0.1888981 0.2735495 0.82300001 5524551
0.1904657 0.2735495 0.82300001 5589578
0.19203334 0.2735495 0.82300001 5589580
0.19360095 0.2735495 0.82300001 5589836
0.1946943 0.27288479 0.82100004 5590092
0.19673619 0.2735495 0.82300001 5589581
0.19782192 0.27288479 0.82100004 5589582
0.19938572 0.27288479 0.82100004 5589581
0.20143905 0.2735495 0.82300001 5589324
0.20300665 0.2735495 0.82300001 5589324
0.20457429 0.2735495 0.82300001 5524045
0.2061419 0.2735495 0.82300001 5523787
0.20770952 0.2735495 0.82300001 5458505
0.20927714 0.2735495 0.82300001 5458249
0.21135716 0.2742143 0.82500005 5327177
0.21241239 0.2735495 0.82300001 5195592
0.21398 0.2735495 0.82300001 5326663
0.21554762 0.2735495 0.82300001 5457735
0.21711524 0.2735495 0.82300001 5392199
0.21868286 0.2735495 0.82300001 5392197
0.22025047 0.2735495 0.82300001 5393219
0.22181809 0.2735495 0.82300001 5393221
0.22338572 0.2735495 0.82300001 5327943
0.22495334 0.2735495 0.82300001 5326919
0.22707145 0.2742143 0.82500005 5326663
0.22864287 0.2742143 0.82500005 5326410
0.2302143 0.2742143 0.82500005 5326158
0.23178573 0.2742143 0.82500005 5391946
0.23335715 0.2742143 0.82500005 5392198
0.2354981 0.27487907 0.82700002 5457734
0.23650001 0.2742143 0.82500005 5392198
0.23864858 0.27487907 0.82700002 5391937
0.24022381 0.27487907 0.82700002 5391420
0.24179906 0.27487907 0.82700002 5391678
0.24396287 0.27554381 0.82900006 5392192
0.24554193 0.27554381 0.82900006 5391682
0.24652477 0.27487907 0.82700002 5325892
0.24870001 0.27554381 0.82900006 5260356
-0.24949527 0.26141146 0.78200006 12033166
-0.24800575 0.26141146 0.78200006 11966861
-0.2465162 0.26141146 0.78200006 11901580
-0.24565333 0.26208001 0.78400004 11901835
-0.24416001 0.26208001 0.78400004 11902347
-0.24266668 0.26208001 0.78400004 11968394
-0.24117334 0.26208001 0.78400004 11902602
-0.23968001 0.26208001 0.78400004 11837065
-0.23818667 0.26208001 0.78400004 11836296
-0.23669335 0.26208001 0.78400004 11901320
-0.2352 0.26208001 0.78400004 11835272
-0.23430286 0.2627486 0.78600001 11769480
-0.23221333 0.26208001 0.78400004 11638153
-0.23130858 0.2627486 0.78600001 11572616
-0.22981143 0.2627486 0.78600001 11639176
-0.22773334 0.26208001 0.78400004 11639688
-0.22624001 0.26208001 0.78400004 11639432
-0.22474667 0.26208001 0.78400004 11573642
-0.22325334 0.26208001 0.78400004 11573388
-0.22232571 0.2627486 0.78600001 11638922
-0.22082858 0.2627486 0.78600001 11573128
-0.21933143 0.2627486 0.78600001 11573129
-0.21783428 0.2627486 0.78600001 11638666
-0.21688762 0.26341715 0.78800005 11638922
-0.21538669 0.26341715 0.78800005 11638666
-0.21388572 0.26341715 0.78800005 11572874
-0.21238478 0.26341715 0.78800005 11573386
-0.21088381 0.26341715 0.78800005 11574154
-0.20885143 0.2627486 0.78600001 11573898
-0.20735428 0.2627486 0.78600001 11573644
-0.20638096 0.26341715 0.78800005 11704975
-0.20488 0.26341715 0.78800005 11902091
-0.20337906 0.26341715 0.78800005 11705479
-0.2018781 0.26341715 0.78800005 11574662
-0.20037715 0.26341715 0.78800005 11508357
-0.1988762 0.26341715 0.78800005 11376771
-0.19762571 0.26375145 0.78900003 11310977
-0.19612287 0.26375145 0.78900003 11310723
-0.19437334 0.26341715 0.78800005 11244933
-0.19287239 0.26341715 0.78800005 11244421
-0.19137144 0.26341715 0.78800005 11244678
-0.19011143 0.26375145 0.78900003 11244933
-0.18860857 0.26375145 0.78900003 11245189
-0.18686858 0.26341715 0.78800005 11310726
-0.18560286 0.26375145 0.78900003 11310728
-0.1841 0.26375145 0.78900003 11376262
-0.18259715 0.26375145 0.78900003 11376517
-0.18109429 0.26375145 0.78900003 11311490
-0.17959145 0.26375145 0.78900003 11377280
-0.17808858 0.26375145 0.78900003 11508611
-0.17703332 0.26442 0.79100001 10194822
-0.17552668 0.26442 0.79100001 8877420
-0.17358001 0.26375145 0.78900003 8812627
-0.17207715 0.26375145 0.78900003 8682567
-0.16949333 0.26208001 0.78400004 8877116
-0.16800001 0.26208001 0.78400004 9071710
-0.16693142 0.2627486 0.78600001 9009024
-0.16543429 0.2627486 0.78600001 9011830
-0.16393714 0.2627486 0.78600001 8812397
-0.16244 0.2627486 0.78600001 8599136
